  -2.95851   2.25384  -2.71870
  -2.28736   3.45662   2.76768
  -1.98696   3.97693   2.69999
  -2.58776   3.97693   2.69999
  -2.88817   3.45662   2.69999
  -2.58776   2.93631   2.69999
  -1.98696   2.93631   2.69999
  -2.57968   5.11447   2.17863
  -3.12907   4.91451   2.17863
  -3.57694   4.53870   2.17863
  -3.86926   4.03238   2.17863
  -4.31280   4.05134   1.75110
  -4.64929   4.03878   1.23917
  -1.99504   5.11447  -2.04327
  -2.57968   5.11447  -2.04327
  -3.12907   4.91451  -2.04327
  -3.57694   4.53870  -2.04327
  -3.86926   4.03238  -2.04327
  -1.70162   4.47116  -2.36494
  -1.68655   3.45662  -2.56463
  -1.98696   3.97693  -2.56463
  -2.58776   3.97693  -2.56463
  -2.88817   3.45662  -2.56463
  -1.98696   2.93631  -2.56463
  -2.28736   3.45662  -2.63232
  -0.31018   2.40783   2.80702
  -0.00978   2.92814   2.73933
  -0.91099   2.40783   2.73933
  -0.61058   1.88752   2.73933
   0.29063   2.40783  -2.52529
  -0.00978   2.92814  -2.52529
  -0.91099   2.40783  -2.52529
  -0.00978   1.88752  -2.52529
  -0.31018   2.40783  -2.59298
   2.64999   0.49089   3.71285
   2.34958   1.01120   3.71285
   2.34958  -0.02942   3.71285
   3.63108   1.06665   3.19149
   2.89089   1.94878   3.19149
   2.34150   2.14874   3.19149
   1.75686   2.14874   3.19149
   2.92610   2.41107   2.76396
   3.43106   2.49289   2.25203
   4.10720   2.13211   1.68135
   3.31949   0.02978   3.67571
   4.60099   0.08523   3.15435
   4.40097   1.51147   2.21489
   4.66031   1.56749   1.64421
   1.87698  -2.86216   0.44259
   2.15647  -2.76507  -0.12809
   5.38334   1.49236   1.21510
   2.61958  -2.51164  -1.12788
   2.61909  -2.10499  -1.63981
   2.71188  -1.59172  -2.06734
   4.01322  -2.31613   3.60912
   4.17017  -2.90187   3.60912
   4.89239  -3.97398   3.28745
   5.47703  -3.97398   3.28745
   6.02642  -3.77402   3.28745
   4.88429  -4.40559   2.85992
   5.48513  -4.40559   2.85992
   5.47793  -4.73101   2.34799
   7.75102  -1.73039   1.77731
   4.74790  -4.98056   1.17650
   4.59897  -4.88244   0.57569
   4.32209  -4.59067   0.00501
   4.89149  -4.73101   0.00501
   7.79853  -1.31633   1.24724
   8.22606  -1.31633   0.81971
   8.74742  -1.31633  -0.26290
   8.68142  -0.73059  -1.46452
   4.73323  -3.31833  -2.03520
   5.25249  -3.59087  -2.03520
   8.22606  -1.31633  -2.54713
   8.14055  -0.72161  -2.54713
   7.49748   0.27902  -2.54713
   6.41553  -3.40579  -2.54713
   8.14055  -1.91105  -2.54713
   7.79853  -1.31633  -2.97466
   7.69701  -0.74057  -2.97466
   6.95682  -2.77422  -2.97466
   7.69701  -1.89209  -2.97466
   4.79872   1.97247   1.20467
   5.33889   2.51658   0.26521
   6.01503   2.15580  -0.30547
   5.59823   2.57260  -0.30547
   6.10646   2.14855  -0.90628
   5.70495   2.57242  -0.90628
   5.59823   2.57260  -1.50709
   2.18117  -0.62668  -2.58970
   2.57464  -1.08077  -2.58970
   2.37511  -0.06118  -3.01723
   2.66743  -0.56750  -3.01723
   3.11530  -0.94331  -3.01723
   3.65661   1.03489  -3.53859
   3.35620   0.51458  -3.53859
   3.65661  -0.00573  -3.53859
   3.84226   3.40017   0.81189
   4.34722   3.48199   0.29996
   3.82796   3.75453   0.29996
   5.02336   3.12121  -0.27072
   4.60656   3.53801  -0.27072
   4.10745   3.85162  -0.27072
   3.55108   4.04630  -0.27072
   5.11479   3.11396  -0.87153
   4.71328   3.53783  -0.87153
   4.23004   3.86547  -0.87153
   5.02336   3.12121  -1.47234
   0.85439   1.47999  -2.55495
   0.93990   0.88527  -2.55495
   1.18950   0.33873  -2.55495
   1.58297  -0.11536  -2.55495
   1.28192   1.47999  -2.98248
   1.38344   0.90423  -2.98248
   1.67576   0.39791  -2.98248
   2.66494   0.95968  -3.50384
  -4.44477  -0.50304   3.41866
  -2.78651  -0.50304   2.94684
  -2.89849   0.09599   2.94684
  -3.21930   0.61412   2.94684
  -3.70562   0.98137   2.94684
  -4.29176   1.14815   2.94684
  -4.89857   1.09192   2.94684
  -5.44410   0.82028   2.94684
  -5.85465   0.36992   2.94684
  -6.07480  -0.19834   2.94684
  -6.07480  -0.80774   2.94684
  -5.85465  -1.37600   2.94684
  -5.44410  -1.82636   2.94684
  -4.89857  -2.09800   2.94684
  -4.29176  -2.15423   2.94684
  -3.70562  -1.98745   2.94684
  -3.21930  -1.62020   2.94684
  -2.89849  -1.10207   2.94684
  -2.40859   0.09484   2.59654
  -3.56320   1.42733   2.59654
  -4.14276   1.59750   2.59654
  -4.74678   1.59750   2.59654
  -5.32634   1.42733   2.59654
  -5.83448   1.10077   2.59654
  -6.23003   0.64428   2.59654
  -6.48095   0.09484   2.59654
  -6.56691  -0.50304   2.59654
  -6.48095  -1.10092   2.59654
  -6.23003  -1.65036   2.59654
  -3.56320  -2.43341   2.59654
  -3.05506  -2.10685   2.59654
  -2.65951  -1.65036   2.59654
  -2.40859  -1.10092   2.59654
  -5.16572   1.90511   2.16696
  -5.70165   1.67394   2.16696
  -6.16981   1.32540   2.16696
  -6.54498   0.87829   2.16696
  -6.80693   0.35671   2.16696
  -6.94153  -0.21121   2.16696
  -6.94153  -0.79487   2.16696
  -6.80693  -1.36279   2.16696
  -5.85465   1.93895   1.67274
  -6.33156   1.59245   1.67274
  -6.72601   1.15438   1.67274
  -7.02075   0.64386   1.67274
  -7.20292   0.08322   1.67274
  -7.20292  -1.08930   1.67274
  -7.24389   0.65640   1.13070
  -7.41630   0.08804   1.13070
  -7.47452  -0.50304   1.13070
  -7.41630  -1.09412   1.13070
  -6.49878   1.86742   0.55931
  -6.91027   1.43585   0.55931
  -7.45428   0.38063   0.55931
  -7.56713  -0.20489   0.55931
  -7.56713  -0.80119   0.55931
  -6.49878   1.86742  -0.02199
  -6.91027   1.43585  -0.02199
  -7.45428   0.38063  -0.02199
  -7.56713  -0.20489  -0.02199
  -7.56713  -0.80119  -0.02199
  -7.45428  -1.38671  -0.02199
  -7.24389   0.65640  -0.59338
  -7.41630   0.08804  -0.59338
  -7.47452  -0.50304  -0.59338
  -7.41630  -1.09412  -0.59338
  -6.33156   1.59245  -1.13542
  -6.72601   1.15438  -1.13542
  -7.02075   0.64386  -1.13542
  -7.20292   0.08322  -1.13542
  -7.20292  -1.08930  -1.13542
  -5.70165   1.67394  -1.62964
  -6.16981   1.32540  -1.62964
  -6.54498   0.87829  -1.62964
  -6.80693   0.35671  -1.62964
  -6.94153  -0.21121  -1.62964
  -6.94153  -0.79487  -1.62964
  -6.80693  -1.36279  -1.62964
  -5.32634   1.42733  -2.05922
  -5.83448   1.10077  -2.05922
  -6.23003   0.64428  -2.05922
  -6.48095   0.09484  -2.05922
  -6.56691  -0.50304  -2.05922
  -6.48095  -1.10092  -2.05922
  -6.23003  -1.65036  -2.05922
  -4.29176   1.14815  -2.40952
  -4.89857   1.09192  -2.40952
  -5.44410   0.82028  -2.40952
  -5.85465   0.36992  -2.40952
  -6.07480  -0.19834  -2.40952
  -6.07480  -0.80774  -2.40952
  -5.85465  -1.37600  -2.40952
  -4.44477  -0.50304  -2.88134
   1.64111  -0.82986  -2.27269
   1.54494  -1.43702  -2.27269
   1.30872  -0.82986  -2.78989
   1.19849  -0.24016  -2.78989
   0.40393   0.63142  -2.78989
  -0.17308   0.79560  -2.78989
  -1.30745   0.47284  -2.78989
  -1.71161   0.02950  -2.78989
   0.28484  -0.82986  -3.44789
  -0.01943  -0.30285  -3.44789
  -0.62797  -0.30285  -3.44789
  -0.74791  -4.50997  -0.62334
  -0.44364  -4.66141  -1.21324
  -1.63607  -4.48997  -1.82804
  -1.05218  -4.66141  -1.82804
  -0.44364  -4.66141  -1.82804
  -0.74791  -4.50997  -2.41794
  -0.14075  -4.41380  -2.41794
   0.40697  -4.13472  -2.41794
   1.12073  -3.15232  -2.41794
  -2.13582  -3.40452  -2.93514
  -1.73166  -3.84786  -2.93514
  -0.59729  -4.17062  -2.93514
  -0.02028  -4.00644  -2.93514
   0.45846  -3.64491  -2.93514
   0.77428  -3.13486  -2.93514
  -0.13937  -2.54516  -3.59314
  -0.44364  -2.01815  -3.59314
  -1.05218  -2.01815  -3.59314
  -1.35645  -2.54516  -3.59314
  -1.05218  -3.07217  -3.59314
  -0.44364  -3.07217  -3.59314
  -0.74791  -2.54516  -3.68064
  -0.14764  -1.89114   2.15479
   0.46090  -1.89114   2.06729
   0.15663  -1.36413   2.06729
  -0.45191  -1.36413   2.06729
  -0.75618  -1.89114   2.06729
  -0.45191  -2.41815   2.06729
   0.15663  -2.41815   2.06729
  -1.13139  -3.19384   1.40929
   0.00298  -3.51660   1.40929
   0.57999  -3.35242   1.40929
   1.05873  -2.99089   1.40929
  -0.75480  -3.75978   0.89209
   0.45952  -3.75978   0.89209
   1.00724  -3.48070   0.89209
   0.15663  -4.00739   0.30219
  -5.97008  -2.88098   2.81016
  -5.66581  -2.35397   2.72266
  -6.27435  -2.35397   2.72266
  -6.57862  -2.88098   2.72266
  -6.27435  -3.40799   2.72266
  -7.35799  -2.02162   2.06466
  -7.57470  -2.58102   2.06466
  -7.57470  -3.18094   2.06466
  -7.35799  -3.74034   2.06466
  -6.95383  -4.18368   2.06466
  -7.55964  -1.72610   1.54746
  -7.83872  -2.27382   1.54746
  -7.93489  -2.88098   1.54746
  -7.83872  -3.48814   1.54746
  -7.55964  -4.03586   1.54746
  -7.12496  -4.47054   1.54746
  -7.76869  -1.72508   0.95756
  -8.02149  -2.27863   0.95756
  -8.10809  -2.88098   0.95756
  -8.02149  -3.48333   0.95756
  -7.76869  -4.03688   0.95756
  -7.37018  -4.49678   0.95756
  -7.76869  -1.72508   0.34276
  -8.02149  -2.27863   0.34276
  -8.10809  -2.88098   0.34276
  -8.02149  -3.48333   0.34276
  -7.83872  -2.27382  -0.24714
  -5.91863  -5.33637   1.42325
  -4.78426  -5.65913   1.42325
  -4.20725  -5.49495   1.42325
  -3.72851  -5.13342   1.42325
  -3.41269  -4.62337   1.42325
  -6.08976  -5.62323   0.90605
  -4.93488  -5.99848   0.90605
  -4.32772  -5.90231   0.90605
  -3.78000  -5.62323   0.90605
  -6.33498  -5.64947   0.31615
  -5.82304  -5.97848   0.31615
  -5.23915  -6.14992   0.31615
  -4.63061  -6.14992   0.31615
  -6.33498  -5.64947  -0.29865
  -5.82304  -5.97848  -0.29865
  -5.23915  -6.14992  -0.29865
  -4.63061  -6.14992  -0.29865
  -6.08976  -5.62323  -0.88855
  -4.93488  -5.99848  -0.88855
  -4.32772  -5.90231  -0.88855
  -3.78000  -5.62323  -0.88855
  -5.91863  -5.33637  -1.40575
  -4.78426  -5.65913  -1.40575
  -4.20725  -5.49495  -1.40575
  -3.72851  -5.13342  -1.40575
   2.88570   4.05849   1.58264
   2.56988   4.56854   1.58264
   2.09114   4.93007   1.58264
   1.51413   5.09425   1.58264
   0.91678   5.03889   1.58264
   3.23215   4.07595   1.06544
   2.51839   5.05835   1.06544
   1.97067   5.33743   1.06544
   1.36351   5.43360   1.06544
   1.66778   5.58504   0.47554
   1.05924   5.58504   0.47554
   1.66778   5.58504  -0.13926
   1.05924   5.58504  -0.13926
   2.51839   5.05835  -0.72916
   1.97067   5.33743  -0.72916
   1.36351   5.43360  -0.72916
   2.56988   4.56854  -1.24636
   2.09114   4.93007  -1.24636
   1.51413   5.09425  -1.24636
   0.91678   5.03889  -1.24636
  -5.01074   3.52163   1.32184
  -5.41490   3.07829   1.32184
  -5.63161   2.51889   1.32184
  -5.18187   3.80849   0.80464
  -5.61655   3.37381   0.80464
  -5.89563   2.82609   0.80464
  -5.99180   2.21893   0.80464
  -5.42709   3.83473   0.21474
  -5.82560   3.37483   0.21474
  -6.07840   2.82128   0.21474
  -6.16500   2.21893   0.21474
  -5.42709   3.83473  -0.40006
  -5.82560   3.37483  -0.40006
  -6.07840   2.82128  -0.40006
  -6.16500   2.21893  -0.40006
  -5.18187   3.80849  -0.98996
  -5.61655   3.37381  -0.98996
  -5.89563   2.82609  -0.98996
  -5.99180   2.21893  -0.98996
  -5.01074   3.52163  -1.50716
  -5.41490   3.07829  -1.50716
  -5.63161   2.51889  -1.50716
  -4.63553   2.21893  -2.16516
  -2.10760   5.84492   1.49556
  -2.68461   6.00910   1.49556
  -3.81898   5.68634   1.49556
  -4.22314   5.24300   1.49556
  -4.43985   4.68360   1.49556
  -2.22807   6.25228   0.97836
  -2.83523   6.34845   0.97836
  -3.99011   5.97320   0.97836
  -4.42479   5.53852   0.97836
  -4.70387   4.99080   0.97836
  -4.80004   4.38364   0.97836
  -2.53096   6.49989   0.38846
  -3.13950   6.49989   0.38846
  -3.72339   6.32845   0.38846
  -4.23533   5.99944   0.38846
  -4.63384   5.53954   0.38846
  -4.88664   4.98599   0.38846
  -4.97324   4.38364   0.38846
  -2.53096   6.49989  -0.22634
  -3.13950   6.49989  -0.22634
  -3.72339   6.32845  -0.22634
  -4.23533   5.99944  -0.22634
  -4.63384   5.53954  -0.22634
  -4.88664   4.98599  -0.22634
  -4.97324   4.38364  -0.22634
  -2.22807   6.25228  -0.81624
  -2.83523   6.34845  -0.81624
  -3.99011   5.97320  -0.81624
  -4.42479   5.53852  -0.81624
  -4.70387   4.99080  -0.81624
  -4.80004   4.38364  -0.81624
  -2.10760   5.84492  -1.33344
  -2.68461   6.00910  -1.33344
  -3.81898   5.68634  -1.33344
  -4.22314   5.24300  -1.33344
  -4.43985   4.68360  -1.33344
   1.31685   0.47914   4.02562
   1.92539   0.47914   3.93812
   1.62112   1.00615   3.93812
   1.01258   1.00615   3.93812
   0.70831   0.47914   3.93812
   1.01258  -0.04787   3.93812
   1.62112  -0.04787   3.93812
   0.33310   1.78184   3.28012
  -0.07106   1.33850   3.28012
  -0.28777   0.77910   3.28012
  -0.28777   0.17918   3.28012
  -0.07106  -0.38022   3.28012
   0.33310  -0.82356   3.28012
   0.16197   2.06870   2.76292
  -0.27271   1.63402   2.76292
  -0.64796   0.47914   2.76292
  -0.55179  -0.12802   2.76292
  -0.27271  -0.67574   2.76292
   0.16197  -1.11042   2.76292
  -0.48176  -0.67676   2.17302
   3.00679  -1.23797   3.97091
   3.61533  -1.23797   3.88341
   3.31106  -0.71096   3.88341
   2.70252  -0.71096   3.88341
   2.39825  -1.23797   3.88341
   2.70252  -1.76498   3.88341
   3.31106  -1.76498   3.88341
   1.40217  -1.53793   3.22541
   1.61888  -2.09733   3.22541
   2.02304  -2.54067   3.22541
   1.13815  -1.84513   2.70821
   1.41723  -2.39285   2.70821
   1.85191  -2.82753   2.70821
   1.20818  -2.39387   2.11831
   1.60669  -2.85377   2.11831
   1.60669  -2.85377   1.50351
   2.11863  -3.18278   1.50351
   7.60181  -3.03215   2.39195
   6.12001  -4.65761   2.39195
   6.69702  -4.49343   2.39195
   7.17576  -4.13190   2.39195
   7.49158  -3.62185   2.39195
   7.93420  -3.03215   1.87475
   7.83803  -2.42499   1.87475
   5.96939  -4.99696   1.87475
   6.57655  -4.90079   1.87475
   7.12427  -4.62171   1.87475
   7.83803  -3.63931   1.87475
   5.66512  -5.14840   1.28485
   6.27366  -5.14840   1.28485
   5.08123  -4.97696   0.67005
   5.66512  -5.14840   0.67005
   6.27366  -5.14840   0.67005
   5.96939  -4.99696   0.08015
   6.57655  -4.90079   0.08015
   7.12427  -4.62171   0.08015
   6.12001  -4.65761  -0.43705
   6.69702  -4.49343  -0.43705
   3.68780  -2.88014   3.50416
   3.99207  -3.40715   3.50416
   2.69172  -3.18010   2.84616
   2.90843  -3.73950   2.84616
   3.31259  -4.18284   2.84616
   4.44696  -4.50560   2.84616
   2.42770  -3.48730   2.32896
   2.70678  -4.03502   2.32896
   3.14146  -4.46970   2.32896
   4.29634  -4.84495   2.32896
   4.90350  -4.74878   2.32896
   2.24493  -3.48249   1.73906
   2.49773  -4.03604   1.73906
   2.89624  -4.49594   1.73906
   3.40818  -4.82495   1.73906
   3.99207  -4.99639   1.73906
   4.60061  -4.99639   1.73906
   2.24493  -3.48249   1.12426
   2.49773  -4.03604   1.12426
   2.89624  -4.49594   1.12426
   3.40818  -4.82495   1.12426
   3.99207  -4.99639   1.12426
   2.42770  -3.48730   0.53436
   2.70678  -4.03502   0.53436
   3.14146  -4.46970   0.53436
   2.69172  -3.18010   0.01716
   2.90843  -3.73950   0.01716
   3.31259  -4.18284   0.01716
   5.47495  -1.72296   4.20398
   6.08349  -1.72296   4.11648
   5.77922  -1.19595   4.11648
   5.17068  -1.19595   4.11648
   4.86641  -1.72296   4.11648
   5.17068  -2.24997   4.11648
   5.77922  -2.24997   4.11648
   7.10737  -1.72296   3.45848
   6.99714  -1.13326   3.45848
   6.68132  -0.62321   3.45848
   6.20258  -0.26168   3.45848
   5.62557  -0.09750   3.45848
   4.49120  -0.42026   3.45848
   6.68132  -2.82271   3.45848
   6.99714  -2.31266   3.45848
   7.43976  -1.72296   2.94128
   7.34359  -1.11580   2.94128
   6.62983  -0.13340   2.94128
   6.08211   0.14568   2.94128
   5.47495   0.24185   2.94128
   7.34359  -2.33012   2.94128
   5.77922   0.39329   2.35138
   8.39198  -2.18123   0.61963
   8.28175  -2.77093   0.61963
   8.72437  -2.18123   0.10243
   7.91444  -3.77079   0.10243
   8.62820  -2.78839   0.10243
   7.06383  -4.29748  -0.48747
   5.87140  -4.12604  -1.10227
   6.45529  -4.29748  -1.10227
   7.06383  -4.29748  -1.10227
   8.72437  -2.18123  -1.69217
   6.75956  -4.14604  -1.69217
   7.36672  -4.04987  -1.69217
   7.91444  -3.77079  -1.69217
   8.62820  -2.78839  -1.69217
   8.39198  -2.18123  -2.20937
   6.91018  -3.80669  -2.20937
   7.48719  -3.64251  -2.20937
   7.96593  -3.28098  -2.20937
   8.28175  -2.77093  -2.20937
   7.30610  -0.43358   1.47460
   7.00183   0.09343   1.47460
   8.32998  -0.43358   0.81660
   8.21975   0.15612   0.81660
   7.90393   0.66617   0.81660
   7.42519   1.02770   0.81660
   6.84818   1.19188   0.81660
   8.66237  -0.43358   0.29940
   8.56620   0.17358   0.29940
   7.85244   1.15598   0.29940
   7.30472   1.43506   0.29940
   6.69756   1.53123   0.29940
   8.56620  -1.04074   0.29940
   7.00183   1.68267  -0.29050
   6.39329   1.68267  -0.29050
   7.00183   1.68267  -0.90530
   8.56620   0.17358  -1.49520
   7.85244   1.15598  -1.49520
   7.30472   1.43506  -1.49520
   6.69756   1.53123  -1.49520
   8.21975   0.15612  -2.01240
   7.90393   0.66617  -2.01240
   7.42519   1.02770  -2.01240
   6.84818   1.19188  -2.01240
   3.94433  -1.83255  -2.79682
   4.22341  -2.38027  -2.79682
   5.81297  -3.19020  -2.79682
   7.44539  -1.22539  -3.31402
   7.33516  -0.63569  -3.31402
   7.01934  -0.12564  -3.31402
   6.54060   0.23589  -3.31402
   4.20835  -0.92543  -3.31402
   4.20835  -1.52535  -3.31402
   4.42506  -2.08475  -3.31402
   4.82922  -2.52809  -3.31402
   5.96359  -2.85085  -3.31402
   6.54060  -2.68667  -3.31402
   7.01934  -2.32514  -3.31402
   7.33516  -1.81509  -3.31402
   5.22908  -0.21406  -3.71663
   6.42151  -1.22539  -3.97202
   6.11724  -0.69838  -3.97202
   5.50870  -0.69838  -3.97202
   5.20443  -1.22539  -3.97202
   5.50870  -1.75240  -3.97202
   6.11724  -1.75240  -3.97202
   5.81297  -1.22539  -4.05952
   5.57242   2.51296  -1.99844
   6.55290   1.17531  -2.58834
   5.83914   2.15771  -2.58834
   5.29142   2.43679  -2.58834
   6.31668   0.56815  -3.10554
   6.20645   1.15785  -3.10554
   5.89063   1.66790  -3.10554
   5.41189   2.02943  -3.10554
   4.83488   2.19361  -3.10554
   4.10037  -0.44318  -3.50815
   5.29280   0.56815  -3.76354
   4.98853   1.09516  -3.76354
   4.37999   1.09516  -3.76354
   4.07572   0.56815  -3.76354
   4.37999   0.04114  -3.76354
   4.68426   0.56815  -3.85104
   3.55726   4.11138  -0.73310
   3.25437   4.35899  -1.32300
   3.25437   4.35899  -1.93780
   2.64583   4.35899  -1.93780
   2.06194   4.18755  -1.93780
   4.81874   2.84990  -2.52770
   4.10498   3.83230  -2.52770
   3.55726   4.11138  -2.52770
   2.95010   4.20755  -2.52770
   1.79522   3.83230  -2.52770
   1.36054   3.39762  -2.52770
   1.08146   2.84990  -2.52770
   4.47229   2.83244  -3.04490
   4.15647   3.34249  -3.04490
   3.67773   3.70402  -3.04490
   3.10072   3.86820  -3.04490
   1.96635   3.54544  -3.04490
   1.56219   3.10210  -3.04490
   1.34548   2.54270  -3.04490
   1.34548   1.94278  -3.04490
   3.55864   2.24274  -3.70290
   3.25437   2.76975  -3.70290
   2.64583   2.76975  -3.70290
   2.34156   2.24274  -3.70290
   2.64583   1.71573  -3.70290
   3.25437   1.71573  -3.70290
   2.95010   2.24274  -3.79040
  -1.86526  -2.51155   2.35945
  -3.01331  -3.65960   2.35945
  -2.43928  -3.50579   2.35945
  -2.01907  -3.08558   2.35945
  -2.85953  -4.17115   2.08222
  -1.78160  -3.63441   2.08222
  -2.71141  -4.61128   1.70913
  -2.13208  -4.44117   1.70913
  -1.62414  -4.11474   1.70913
  -1.22874  -3.65842   1.70913
  -2.12878  -4.84386   1.25452
  -1.59632  -4.56441   1.25452
  -1.14622  -4.16565   1.25452
  -2.27182  -5.18216   0.73586
  -1.71505  -4.96033   0.73586
  -1.21899  -4.62399   0.73586
  -1.99141  -5.27075   0.17308
  -1.45691  -5.00856   0.17308
  -1.86526  -5.28319  -0.41219
  -1.34660  -5.00596  -0.41219
  -1.99141  -5.27075  -0.99746
  -1.45691  -5.00856  -0.99746
  -2.27182  -5.18216  -1.56024
  -1.71505  -4.96033  -1.56024
  -3.89784  -4.84386  -2.07890
  -3.31398  -4.98777  -2.07890
  -2.12878  -4.84386  -2.07890
  -3.89454  -4.44117  -2.53351
  -3.31521  -4.61128  -2.53351
  -2.71141  -4.61128  -2.53351
  -2.13208  -4.44117  -2.53351
  -4.43038  -3.38896  -2.90660
  -4.01773  -3.84161  -2.90660
  -3.46943  -4.11464  -2.90660
  -2.85953  -4.17115  -2.90660
  -4.00755  -1.93752  -3.18383
  -4.16136  -2.51155  -3.18383
  -4.00755  -3.08558  -3.18383
  -3.58734  -3.50579  -3.18383
  -3.01331  -3.65960  -3.18383
  -2.43928  -3.50579  -3.18383
  -5.80159  -4.07449   2.78940
  -5.22756  -4.22830   2.78940
  -4.65353  -4.07449   2.78940
  -4.23332  -3.65428   2.78940
  -6.23198  -4.41031   2.51217
  -5.68368  -4.68334   2.51217
  -5.07378  -4.73985   2.51217
  -3.99585  -4.20311   2.51217
  -3.67340  -3.68234   2.51217
  -6.61673  -4.68344   2.13908
  -6.10879  -5.00987   2.13908
  -5.52946  -5.17998   2.13908
  -4.92566  -5.17998   2.13908
  -4.34633  -5.00987   2.13908
  -3.83839  -4.68344   2.13908
  -3.44299  -4.22712   2.13908
  -6.64455  -5.13311   1.68447
  -7.23976  -4.98630   1.16581
  -7.80020  -4.50818   0.60303
  -8.16992  -3.66552   0.01776
  -8.15482  -2.78258  -0.56751
  -8.15482  -3.37792  -0.56751
  -7.60246  -1.65132  -1.13029
  -7.85411  -2.19526  -1.13029
  -7.98295  -2.78058  -1.13029
  -7.98295  -3.37992  -1.13029
  -7.85411  -3.96524  -1.13029
  -7.60246  -4.50918  -1.13029
  -7.23976  -4.98630  -1.13029
  -7.43625  -1.92104  -1.64895
  -7.43625  -4.23946  -1.64895
  -7.09465  -4.73435  -1.64895
  -6.64455  -5.13311  -1.64895
  -7.01213  -1.93338  -2.10356
  -7.26295  -2.48260  -2.10356
  -7.34888  -3.08025  -2.10356
  -7.26295  -3.67790  -2.10356
  -7.01213  -4.22712  -2.10356
  -6.61673  -4.68344  -2.10356
  -6.10879  -5.00987  -2.10356
  -5.52946  -5.17998  -2.10356
  -4.92566  -5.17998  -2.10356
  -4.34633  -5.00987  -2.10356
  -6.23198  -1.75019  -2.47665
  -6.64463  -2.20284  -2.47665
  -6.86589  -2.77399  -2.47665
  -6.86589  -3.38651  -2.47665
  -6.64463  -3.95766  -2.47665
  -6.23198  -4.41031  -2.47665
  -5.68368  -4.68334  -2.47665
  -5.07378  -4.73985  -2.47665
  -5.80159  -2.08601  -2.75388
  -6.22180  -2.50622  -2.75388
  -6.37561  -3.08025  -2.75388
  -6.22180  -3.65428  -2.75388
  -5.80159  -4.07449  -2.75388
  -5.22756  -4.22830  -2.75388
  -4.65353  -4.07449  -2.75388
  -0.68553   3.05349   3.07365
   0.16988   3.56035   2.90293
   0.01607   4.13438   2.90293
  -0.40414   4.55459   2.90293
  -0.97817   4.70840   2.90293
  -1.55220   4.55459   2.90293
  -1.55220   2.56611   2.90293
   0.25354   4.68321   2.62570
  -0.82439   5.21995   2.62570
  -1.43429   5.16344   2.62570
   0.80640   4.70722   2.25261
   0.41100   5.16354   2.25261
  -0.09694   5.48997   2.25261
  -0.67627   5.66008   2.25261
  -1.28007   5.66008   2.25261
  -1.85940   5.48997   2.25261
   0.43882   5.61321   1.79800
  -0.09364   5.89266   1.79800
  -1.27884   6.03657   1.79800
   0.81615   5.67279   1.27934
   0.32009   6.00913   1.27934
  -0.23668   6.23096   1.27934
   0.57823   6.05736   0.71656
   0.04373   6.31955   0.71656
   0.68854   6.05476   0.13129
   0.16988   6.33199   0.13129
   0.57823   6.05736  -0.45398
   0.04373   6.31955  -0.45398
   0.81615   5.67279  -1.01676
   0.32009   6.00913  -1.01676
  -0.23668   6.23096  -1.01676
   0.43882   5.61321  -1.53542
  -0.09364   5.89266  -1.53542
  -1.27884   6.03657  -1.53542
   0.80640   4.70722  -1.99003
   0.41100   5.16354  -1.99003
  -0.09694   5.48997  -1.99003
  -0.67627   5.66008  -1.99003
  -1.28007   5.66008  -1.99003
   0.57599   4.16244  -2.36312
   0.25354   4.68321  -2.36312
  -0.82439   5.21995  -2.36312
  -1.43429   5.16344  -2.36312
   0.16988   3.56035  -2.64035
   0.01607   4.13438  -2.64035
  -0.40414   4.55459  -2.64035
  -0.97817   4.70840  -2.64035
  -0.68553   3.05349  -2.81107
   2.03423   3.10211   2.93995
   1.61402   3.52232   2.93995
   1.03999   3.67613   2.93995
   2.27170   3.65094   2.66272
   1.19377   4.18768   2.66272
   0.58387   4.13117   2.66272
   2.82456   3.67495   2.28963
   2.42916   4.13127   2.28963
   1.92122   4.45770   2.28963
   1.34189   4.62781   2.28963
   3.24868   3.68729   1.83502
   1.34189   4.62781  -1.95301
   1.19377   4.18768  -2.32610
   1.03999   3.67613  -2.60333
   6.38278   0.53739   1.65801
   2.59089  -2.94440  -1.15675
   2.95359  -3.42152  -1.15675
   2.75710  -2.67468  -1.67541
   3.09870  -3.16957  -1.67541
   3.54880  -3.56833  -1.67541
   4.08126  -3.84778  -1.67541
   4.66512  -3.99169  -1.67541
   3.18122  -2.66234  -2.13002
   3.57662  -3.11866  -2.13002
   4.08456  -3.44509  -2.13002
   3.54872  -2.39288  -2.50311
   3.96137  -2.84553  -2.50311
  -1.41446   0.20380   2.81234
  -1.29655  -0.40505   2.53511
   0.30762   1.19804  -2.73094
  -0.46093  -4.15354   0.79296
   0.26030  -4.43652  -0.28848
   0.79480  -4.17433  -0.28848
   0.90511  -4.17173  -0.87375
   1.35972  -3.79864  -0.87375
   2.01004  -1.67732  -2.02180
   1.75387  -2.84110  -2.02180
   1.94524  -2.27314  -2.02180
   1.44709  -2.83653  -2.54046
   1.35972  -1.67732  -2.99507
   1.27379  -2.27497  -2.99507
   0.90511  -1.67732  -3.36816
  -1.76602  -0.34726  -3.36816
   0.38645  -1.67732  -3.64539
  -1.75584  -1.10329  -3.64539
  -1.90965  -1.67732  -3.64539
  -1.03050  -1.41595   2.31783
  -2.17855  -0.26790  -3.22545
  -2.75258  -0.42171  -3.22545
  -3.17279  -0.84192  -3.22545
  -2.47119  -1.92281  -3.39617
  -3.62605  -3.18279   2.71473
  -3.20584  -2.76258   2.71473
  -1.74902  -0.80660   2.66053
  -1.18910  -0.83466   2.38330
  -3.31729   0.76167  -2.88275
  -2.45425   1.61670   2.91267
  -2.45425   1.61670  -2.97205
  -3.95275   2.82787   2.75294
  -4.10656   2.25384   2.75294
  -4.37558   3.13125   2.47571
  -4.59684   2.56010   2.47571
  -4.74308   3.40071   2.10262
  -4.99390   2.85149   2.10262
  -4.82560   3.90794   1.64801
  -4.97071   4.15989  -1.16675
  -4.82560   3.90794  -1.68541
  -4.34768   3.85703  -2.14002
  -4.74308   3.40071  -2.14002
  -3.96293   3.58390  -2.51311
  -4.37558   3.13125  -2.51311
  -4.59684   2.56010  -2.51311
  -4.59684   1.94758  -2.51311
  -1.81046   2.25384  -2.79034
  -3.53254   3.24808  -2.79034
  -3.95275   2.82787  -2.79034
  -4.10656   2.25384  -2.79034
  -3.95275   1.67981  -2.79034
  -3.53254   1.25960  -2.79034
  -2.28736   4.60467   2.83932
  -2.86139   4.45086   2.83932
  -3.28160   4.03065   2.83932
  -3.43541   3.45662   2.83932
  -2.13358   5.11622   2.56209
  -2.74348   5.05971   2.56209
  -3.29178   4.78668   2.56209
  -3.70443   4.33403   2.56209
  -3.92569   3.76288   2.56209
  -2.58926   5.55635   2.18900
  -4.07193   4.60349   2.18900
  -4.32275   4.05427   2.18900
  -1.98546   5.55635  -2.05364
  -2.58926   5.55635  -2.05364
  -4.07193   4.60349  -2.05364
  -2.13358   5.11622  -2.42673
  -2.74348   5.05971  -2.42673
  -3.29178   4.78668  -2.42673
  -3.70443   4.33403  -2.42673
  -2.28736   4.60467  -2.70396
  -2.86139   4.45086  -2.70396
  -3.28160   4.03065  -2.70396
   3.38949   3.09113   2.23989
   4.20901   2.64715   1.78528
   3.86741   3.14204   1.78528
   3.79464   3.60038   1.26662
   3.04342   1.06492   3.85218
   2.62321   1.48513   3.85218
   2.04918   1.63894   3.85218
   3.28089   1.61375   3.57495
   2.20296   2.15049   3.57495
   3.83375   1.63776   3.20186
   3.43835   2.09408   3.20186
   2.93041   2.42051   3.20186
   2.35108   2.59062   3.20186
   1.74728   2.59062   3.20186
   4.25787   1.65010   2.74725
   3.91627   2.14499   2.74725
   3.46617   2.54375   2.74725
   2.93371   2.82320   2.74725
   4.25566   2.16821   2.22859
   3.84350   2.60333   2.22859
   2.72645   0.01633   3.98576
   4.16714  -0.49053   3.81504
   4.01333   0.08350   3.81504
   3.59312   0.50371   3.81504
   4.25080   0.63233   3.53781
   4.80366   0.65634   3.16472
   4.40826   1.11266   3.16472
   5.22778   0.66868   2.71011
   4.88618   1.16357   2.71011
   4.81341   1.62191   2.19145
   1.87104  -3.26217   1.04340
   2.13456  -2.82284  -0.62331
   5.39063   1.09355   2.16493
   5.86855   1.14446   1.71032
   5.41845   1.54322   1.71032
   6.20794   1.16768   1.19166
   2.61229  -2.11283  -2.07771
   4.89207  -2.82299   4.11886
   4.61068  -3.31037   3.94814
   5.18471  -3.46418   3.94814
   5.75874  -3.31037   3.94814
   4.72859  -3.91922   3.67091
   5.33849  -3.97573   3.67091
   6.41642  -3.43899   3.67091
   4.88281  -4.41586   3.29782
   5.48661  -4.41586   3.29782
   6.06594  -4.24575   3.29782
   6.57388  -3.91932   3.29782
   6.96928  -3.46300   3.29782
   7.22010  -2.91378   3.29782
   6.06924  -4.64844   2.84321
   7.60664  -2.91308   2.84321
   7.95635  -2.31613   2.32455
   7.89155  -1.72031   2.32455
   7.88861  -1.15579   1.76177
   7.59969  -0.63526   1.76177
   5.03568  -5.25471   1.76177
   5.18471  -5.31613   1.17650
   3.76772  -4.36899  -0.49021
   4.30018  -4.64844  -0.49021
   4.88404  -4.79235  -0.49021
   4.88281  -4.41586  -0.94482
   5.48661  -4.41586  -0.94482
   8.23643  -1.31633   1.25761
   8.88675  -1.31633   0.28434
   9.11511  -1.31633  -0.86371
   9.05747  -1.31633  -1.44898
   8.88675  -1.31633  -2.01176
   8.82195  -0.72051  -2.01176
   8.63058  -0.15255  -2.01176
   5.66671  -4.05146  -2.01176
   8.82195  -1.91215  -2.01176
   8.32380  -0.15712  -2.53042
   7.98220   0.33777  -2.53042
   7.53210   0.73653  -2.53042
   6.99964   1.01598  -2.53042
   4.69812  -3.36919  -2.53042
   5.23058  -3.64864  -2.53042
   5.81444  -3.79255  -2.53042
   8.23643  -1.31633  -2.98503
   8.15050  -0.71868  -2.98503
   7.89968  -0.16946  -2.98503
   7.50428   0.28686  -2.98503
   6.99634   0.61329  -2.98503
   6.41701  -3.41606  -2.98503
   6.99634  -3.24595  -2.98503
   7.50428  -2.91952  -2.98503
   7.89968  -2.46320  -2.98503
   8.15050  -1.91398  -2.98503
   5.34618   2.11777   1.21504
   6.16570   1.67379   0.76043
   5.82410   2.16868   0.76043
   5.37400   2.56744   0.76043
   6.16349   2.19190   0.24177
   5.75133   2.62702   0.24177
   5.51341   3.01159  -0.32101
   5.62372   3.00899  -0.90628
   5.51341   3.01159  -1.49155
   2.08992  -1.13952  -2.57299
   2.54002  -1.53828  -2.57299
   3.07248  -1.81773  -2.57299
   2.17244  -0.63229  -3.02760
   2.56784  -1.08861  -3.02760
   3.07578  -1.41504  -3.02760
   3.65511  -1.58515  -3.02760
   2.53994  -0.36283  -3.40069
   2.95259  -0.81548  -3.40069
   3.50089  -1.08851  -3.40069
   2.96277  -0.05945  -3.67792
   3.38298  -0.47966  -3.67792
   4.74991   2.62686   1.24979
   4.35451   3.08318   1.24979
   4.83243   3.13409   0.79518
   4.38233   3.53285   0.79518
   3.84987   3.81230   0.79518
   5.17182   3.15731   0.27652
   4.75966   3.59243   0.27652
   4.26360   3.92877   0.27652
   3.70683   4.15060   0.27652
   4.52174   3.97700  -0.28626
   3.98724   4.23919  -0.28626
   4.63205   3.97440  -0.87153
   4.11339   4.25163  -0.87153
   4.99253   3.61259  -1.45680
   5.17182   3.15731  -2.01958
   0.92995   2.07764  -2.99285
   0.84402   1.47999  -2.99285
   0.92995   0.88234  -2.99285
   1.18077   0.33312  -2.99285
   1.57617  -0.12320  -2.99285
   1.32701   1.17373  -3.36594
   1.54827   0.60258  -3.36594
   1.96092   0.14993  -3.36594
   1.81729   1.47999  -3.64317
   1.97110   0.90596  -3.64317
   2.39131   0.48575  -3.64317
   3.25798   0.97313  -3.81389
  -3.86869  -0.50304   3.72092
  -4.15673  -0.00414   3.72092
  -4.73281  -0.00414   3.72092
  -5.02085  -0.50304   3.72092
  -4.73281  -1.00194   3.72092
  -4.15673  -1.00194   3.72092
  -3.30832  -0.50304   3.57902
  -3.46058   0.06518   3.57902
  -3.87655   0.48115   3.57902
  -4.44477   0.63341   3.57902
  -5.01299   0.48115   3.57902
  -5.42896   0.06518   3.57902
  -5.58122  -0.50304   3.57902
  -5.42896  -1.07126   3.57902
  -5.01299  -1.48723   3.57902
  -4.44477  -1.63949   3.57902
  -3.87655  -1.48723   3.57902
  -3.46058  -1.07126   3.57902
  -2.77895  -0.50304   3.34682
  -2.87942   0.06670   3.34682
  -3.16868   0.56773   3.34682
  -3.61186   0.93960   3.34682
  -4.15550   1.13747   3.34682
  -4.73404   1.13747   3.34682
  -5.27768   0.93960   3.34682
  -5.72086   0.56773   3.34682
  -6.01012   0.06670   3.34682
  -6.11059  -0.50304   3.34682
  -6.01012  -1.07278   3.34682
  -5.72086  -1.57381   3.34682
  -5.27768  -1.94568   3.34682
  -4.73404  -2.14355   3.34682
  -4.15550  -2.14355   3.34682
  -3.61186  -1.94568   3.34682
  -3.16868  -1.57381   3.34682
  -2.87942  -1.07278   3.34682
  -2.29503  -0.50304   3.03065
  -2.37474   0.07695   3.03065
  -2.60799   0.61393   3.03065
  -2.97746   1.06807   3.03065
  -3.45575   1.40569   3.03065
  -4.00739   1.60174   3.03065
  -4.59147   1.64169   3.03065
  -5.16468   1.52258   3.03065
  -5.68449   1.25324   3.03065
  -6.11235   0.85364   3.03065
  -6.41654   0.35342   3.03065
  -6.57449  -0.21032   3.03065
  -6.57449  -0.79576   3.03065
  -6.41654  -1.35950   3.03065
  -6.11235  -1.85972   3.03065
  -5.16468  -2.52866   3.03065
  -4.59147  -2.64777   3.03065
  -4.00739  -2.60782   3.03065
  -3.45575  -2.41177   3.03065
  -2.97746  -2.07415   3.03065
  -2.60799  -1.62001   3.03065
  -2.37474  -1.08303   3.03065
  -4.59449   2.06764   2.63915
  -5.18330   1.96382   2.63915
  -5.73229   1.72700   2.63915
  -6.21187   1.36997   2.63915
  -6.59618   0.91196   2.63915
  -6.86451   0.37767   2.63915
  -7.00239  -0.20410   2.63915
  -7.00239  -0.80198   2.63915
  -6.86451  -1.38375   2.63915
  -2.47218  -2.15824   2.63915
  -2.14364  -1.65871   2.63915
  -5.17920   2.33351   2.18298
  -5.73516   2.12760   2.18298
  -6.23829   1.81400   2.18298
  -6.66799   1.40554   2.18298
  -7.00668   0.91893   2.18298
  -7.24048   0.37412   2.18298
  -7.35982  -0.20661   2.18298
  -7.35982  -0.79947   2.18298
  -7.24048  -1.38020   2.18298
  -5.87345   2.36614   1.67459
  -6.37634   2.05477   1.67459
  -6.81345   1.65629   1.67459
  -7.16989   1.18428   1.67459
  -7.43354   0.65481   1.67459
  -7.64998  -0.50304   1.67459
  -6.14122   2.43530   1.12786
  -6.62568   2.09607   1.12786
  -7.04388   1.67787   1.12786
  -7.38311   1.19341   1.12786
  -6.51888   2.30134   0.55769
  -6.96299   1.91047   0.55769
  -7.33465   1.45018   0.55769
  -7.62318   0.93369   0.55769
  -6.51888   2.30134  -0.02037
  -6.96299   1.91047  -0.02037
  -7.33465   1.45018  -0.02037
  -7.62318   0.93369  -0.02037
  -6.62568   2.09607  -0.59054
  -7.04388   1.67787  -0.59054
  -7.38311   1.19341  -0.59054
  -6.37634   2.05477  -1.13727
  -6.81345   1.65629  -1.13727
  -7.16989   1.18428  -1.13727
  -7.43354   0.65481  -1.13727
  -7.64998  -0.50304  -1.13727
  -6.23829   1.81400  -1.64566
  -6.66799   1.40554  -1.64566
  -7.00668   0.91893  -1.64566
  -7.24048   0.37412  -1.64566
  -7.35982  -0.20661  -1.64566
  -7.35982  -0.79947  -1.64566
  -7.24048  -1.38020  -1.64566
  -5.73229   1.72700  -2.10183
  -6.21187   1.36997  -2.10183
  -6.59618   0.91196  -2.10183
  -6.86451   0.37767  -2.10183
  -7.00239  -0.20410  -2.10183
  -7.00239  -0.80198  -2.10183
  -6.86451  -1.38375  -2.10183
  -5.16468   1.52258  -2.49333
  -5.68449   1.25324  -2.49333
  -6.11235   0.85364  -2.49333
  -6.41654   0.35342  -2.49333
  -6.57449  -0.21032  -2.49333
  -6.57449  -0.79576  -2.49333
  -6.41654  -1.35950  -2.49333
  -4.15550   1.13747  -2.80950
  -4.73404   1.13747  -2.80950
  -5.27768   0.93960  -2.80950
  -5.72086   0.56773  -2.80950
  -6.01012   0.06670  -2.80950
  -6.11059  -0.50304  -2.80950
  -6.01012  -1.07278  -2.80950
  -5.72086  -1.57381  -2.80950
  -3.46058   0.06518  -3.04170
  -3.87655   0.48115  -3.04170
  -4.44477   0.63341  -3.04170
  -5.01299   0.48115  -3.04170
  -5.42896   0.06518  -3.04170
  -5.58122  -0.50304  -3.04170
  -5.42896  -1.07126  -3.04170
  -5.01299  -1.48723  -3.04170
  -3.86869  -0.50304  -3.18360
  -4.15673  -0.00414  -3.18360
  -4.73281  -0.00414  -3.18360
  -5.02085  -0.50304  -3.18360
  -4.73281  -1.00194  -3.18360
  -4.15673  -1.00194  -3.18360
  -0.75923   0.70088  -3.17182
   0.79164  -0.82986  -3.50048
   0.64221  -0.27219  -3.50048
   0.23397   0.13605  -3.50048
  -0.32370   0.28548  -3.50048
  -0.88137   0.13605  -3.50048
  -1.28961  -0.27219  -3.50048
  -0.32370  -0.82986  -3.77539
  -0.16711  -4.71274  -0.66959
   0.37411  -4.48855  -0.66959
  -0.01168  -4.81105  -1.23135
   0.52870  -4.55677  -1.23135
  -0.01168  -4.81105  -1.80993
   0.52870  -4.55677  -1.80993
   0.98886  -4.17609  -1.80993
   1.33989  -3.69294  -1.80993
  -1.32871  -4.71274  -2.37169
   0.83887  -4.13194  -2.37169
   1.19548  -3.66718  -2.37169
  -1.73549  -4.25570  -2.88400
  -1.18742  -4.47080  -2.88400
   0.48358  -4.08940  -2.88400
   0.88404  -3.65781  -2.88400
   0.84358  -2.54516  -3.31707
  -2.31231  -2.83760  -3.31707
  -1.18344  -4.07590  -3.31707
   0.36743  -2.54516  -3.64573
  -1.86325  -2.54516  -3.64573
  -1.71382  -3.10283  -3.64573
  -1.30558  -3.51107  -3.64573
  -0.74791  -3.66050  -3.64573
  -0.19024  -3.51107  -3.64573
   0.21800  -3.10283  -3.64573
  -0.70531  -2.85705   2.11988
  -0.14764  -3.00648   2.11988
   0.41003  -2.85705   2.11988
  -0.58317  -3.42188   1.79122
  -0.58715  -3.81678   1.35815
   1.08385  -3.43538   1.35815
   1.43914  -3.47792   0.84584
   0.58859  -4.15703   0.28408
   1.12897  -3.90275   0.28408
   1.58913  -3.52207   0.28408
   1.58913  -3.52207  -0.29450
  -5.68290  -3.37839   2.98042
  -6.52775  -1.91507   2.77525
  -6.93599  -2.32331   2.77525
  -7.08542  -2.88098   2.77525
  -6.93599  -3.43865   2.77525
  -6.52775  -3.84689   2.77525
  -7.41798  -4.22443   2.01352
  -7.55686  -4.46776   1.50121
  -7.91347  -1.75896  -0.20089
  -5.37041  -5.56441   1.80518
  -5.92246  -5.74421   1.37211
  -5.37439  -5.95931   1.37211
  -3.70339  -5.57791   1.37211
  -3.30293  -5.14632   1.37211
  -5.51568  -6.20125   0.85980
  -3.34810  -5.62045   0.85980
  -4.19865  -6.29956   0.29804
  -3.65827  -6.04528   0.29804
  -3.19811  -5.66460   0.29804
  -4.19865  -6.29956  -0.28054
  -3.65827  -6.04528  -0.28054
  -3.19811  -5.66460  -0.28054
  -5.51568  -6.20125  -0.84230
  -3.34810  -5.62045  -0.84230
  -5.92246  -5.74421  -1.35461
  -5.37439  -5.95931  -1.35461
  -3.70339  -5.57791  -1.35461
  -5.37041  -5.56441  -1.78768
   2.99546   4.58144   1.53150
   2.59500   5.01303   1.53150
   3.30690   4.59081   1.01919
   2.95029   5.05557   1.01919
   3.45131   4.61657   0.45743
   3.10028   5.09972   0.45743
   2.64012   5.48040   0.45743
   2.09974   5.73468   0.45743
   3.45131   4.61657  -0.12115
   3.10028   5.09972  -0.12115
   2.64012   5.48040  -0.12115
   2.09974   5.73468  -0.12115
   3.30690   4.59081  -0.68291
   2.95029   5.05557  -0.68291
   2.59500   5.01303  -1.19522
  -5.47489   3.56238   1.27070
  -5.61377   3.80571   0.75839
  -5.61377   3.80571  -0.94371
  -5.47489   3.56238  -1.45602
  -4.99290   2.77660  -2.21775
  -5.14233   2.21893  -2.21775
  -3.39290   5.34955   2.20615
  -3.80114   4.94131   2.20615
  -3.27076   5.91438   1.87749
  -3.27474   6.30928   1.44442
  -3.82281   6.09418   1.44442
  -4.28313   5.72709   1.44442
  -3.41603   6.55122   0.93211
  -4.42201   5.97042   0.93211
  -2.09900   6.64953   0.37035
  -2.09900   6.64953  -0.20823
  -3.41603   6.55122  -0.76999
  -4.42201   5.97042  -0.76999
  -3.27474   6.30928  -1.28230
  -3.82281   6.09418  -1.28230
  -4.28313   5.72709  -1.28230
  -3.27076   5.91438  -1.71537
  -3.39290   5.34955  -2.04403
   1.31685   1.59448   3.99071
   0.75918   1.44505   3.99071
   0.35094   1.03681   3.99071
   0.20151   0.47914   3.99071
   0.35094  -0.07853   3.99071
   0.75918  -0.48677   3.99071
   1.31685  -0.63620   3.99071
   1.87452  -0.48677   3.99071
   1.46369   2.06385   3.66205
   0.88132   2.00988   3.66205
   0.88132  -1.05160   3.66205
   1.46369  -1.10557   3.66205
   0.87734   2.40478   3.22898
   0.32927   2.18968   3.22898
  -0.13105   1.82259   3.22898
  -0.13105  -0.86431   3.22898
   0.32927  -1.23140   3.22898
   0.87734  -1.44650   3.22898
  -0.26993  -1.10764   2.71667
   0.73605  -1.68844   2.71667
   1.89145  -1.23797   3.93600
   2.04088  -1.79564   3.93600
   2.44912  -2.20388   3.93600
   3.00679  -2.35331   3.93600
   3.56446  -2.20388   3.93600
   3.97270  -1.79564   3.93600
   2.57126  -2.76871   3.60734
   3.15363  -2.82268   3.60734
   1.55889  -2.58142   3.17427
   2.01921  -2.94851   3.17427
   1.42001  -2.82475   2.66196
   1.99237  -3.39372   2.10020
   7.20088  -4.57639   2.34081
   7.60134  -4.14480   2.34081
   7.55617  -4.61893   1.82850
   7.91278  -4.15417   1.82850
   8.35189  -3.03215   1.26674
   8.27704  -2.43965   1.26674
   6.70562  -5.29804   1.26674
   7.24600  -5.04376   1.26674
   7.70616  -4.66308   1.26674
   8.05719  -4.17993   1.26674
   8.27704  -3.62465   1.26674
   6.70562  -5.29804   0.68816
   7.24600  -5.04376   0.68816
   7.70616  -4.66308   0.68816
   8.05719  -4.17993   0.68816
   8.27704  -3.62465   0.68816
   5.38859  -5.19973   0.12640
   7.55617  -4.61893   0.12640
   5.52988  -4.95779  -0.38591
   3.33043  -3.43781   3.55675
   3.73867  -3.84605   3.55675
   4.29634  -3.99548   3.55675
   3.86081  -4.41088   3.22809
   2.84844  -4.22359   2.79502
   3.30876  -4.59068   2.79502
   3.85683  -4.80578   2.79502
   2.70956  -4.46692   2.28271
   3.71554  -5.04772   2.28271
   4.44594  -5.25794   1.14237
   2.70956  -4.46692   0.58061
   3.71554  -5.04772   0.58061
   2.84844  -4.22359   0.06830
   3.30876  -4.59068   0.06830
   3.85683  -4.80578   0.06830
   6.59029  -1.72296   4.16907
   6.44086  -1.16529   4.16907
   6.03262  -0.75705   4.16907
   5.47495  -0.60762   4.16907
   4.91728  -0.75705   4.16907
   4.50904  -1.16529   4.16907
   4.35961  -1.72296   4.16907
   4.50904  -2.28063   4.16907
   5.47495  -2.83830   4.16907
   6.03262  -2.68887   4.16907
   6.44086  -2.28063   4.16907
   5.03942  -0.19222   3.84041
   7.10690  -0.61031   3.40734
   6.70644  -0.17872   3.40734
   5.03544   0.20268   3.40734
   7.41834  -0.60094   2.89503
   7.06173  -0.13618   2.89503
   7.78260  -1.13046   2.33327
   7.56275  -0.57518   2.33327
   7.21172  -0.09203   2.33327
   6.75156   0.28865   2.33327
   6.21118   0.54293   2.33327
   6.75156   0.28865   1.75469
   8.34634  -3.76801   0.05618
   8.70295  -3.30325   0.05618
   9.14206  -2.18123  -0.50558
   7.49579  -4.44712  -0.50558
   8.03617  -4.19284  -0.50558
   8.49633  -3.81216  -0.50558
   8.84736  -3.32901  -0.50558
   9.06721  -2.77373  -0.50558
   9.14206  -2.18123  -1.08416
   7.49579  -4.44712  -1.08416
   8.03617  -4.19284  -1.08416
   8.49633  -3.81216  -1.08416
   8.84736  -3.32901  -1.08416
   9.06721  -2.77373  -1.08416
   6.17876  -4.34881  -1.64592
   8.34634  -3.76801  -1.64592
   8.70295  -3.30325  -1.64592
   6.32005  -4.10687  -2.15823
   7.99105  -3.72547  -2.15823
   8.39151  -3.29388  -2.15823
   7.66347   0.12409   1.52719
   7.25523   0.53233   1.52719
   8.32951   0.67907   0.76546
   7.92905   1.11066   0.76546
   8.64095   0.68844   0.25315
   8.28434   1.15320   0.25315
   9.08006  -0.43358  -0.30861
   9.00521   0.15892  -0.30861
   8.78536   0.71420  -0.30861
   8.43433   1.19735  -0.30861
   7.97417   1.57803  -0.30861
   7.43379   1.83231  -0.30861
   9.08006  -0.43358  -0.88719
   9.00521   0.15892  -0.88719
   8.78536   0.71420  -0.88719
   8.43433   1.19735  -0.88719
   7.97417   1.57803  -0.88719
   7.43379   1.83231  -0.88719
   8.64095   0.68844  -1.44895
   8.28434   1.15320  -1.44895
   8.32951   0.67907  -1.96126
   7.92905   1.11066  -1.96126
   7.04446   0.31885  -3.26288
   4.36507  -2.56884  -3.26288
   4.82539  -2.93593  -3.26288
   5.37346  -3.15103  -3.26288
   5.37744  -2.75613  -3.69595
   6.92831  -1.22539  -4.02461
   6.77888  -0.66772  -4.02461
   6.37064  -0.25948  -4.02461
   5.81297  -0.11005  -4.02461
   4.84706  -0.66772  -4.02461
   4.69763  -1.22539  -4.02461
   4.84706  -1.78306  -4.02461
   5.25530  -2.19130  -4.02461
   5.81297  -2.34073  -4.02461
   6.37064  -2.19130  -4.02461
   6.77888  -1.78306  -4.02461
   6.42103   2.19908  -1.40175
   6.77206   1.71593  -1.98033
   6.42103   2.19908  -1.98033
   6.62765   1.69017  -2.54209
   6.27104   2.15493  -2.54209
   6.31621   1.68080  -3.05440
   5.91575   2.11239  -3.05440
   5.79960   0.56815  -3.81613
   5.65017   1.12582  -3.81613
   5.24193   1.53406  -3.81613
   4.68426   1.68349  -3.81613
   4.12659   1.53406  -3.81613
   4.97144   0.07074  -4.02130
   4.22671   4.25435  -1.34111
   3.68633   4.50863  -1.34111
   4.68687   3.87367  -1.91969
   4.22671   4.25435  -1.91969
   3.68633   4.50863  -1.91969
   4.89349   3.36476  -2.48145
   4.53688   3.82952  -2.48145
   2.36930   4.41032  -2.48145
   4.58205   3.35539  -2.99376
   4.18159   3.78698  -2.99376
   2.51059   4.16838  -2.99376
   1.96252   3.95328  -2.99376
   1.50220   3.58619  -2.99376
   4.54159   2.24274  -3.42683
   2.51457   3.77348  -3.42683
   4.06544   2.24274  -3.75549
   3.91601   2.80041  -3.75549
   3.50777   3.20865  -3.75549
   2.95010   3.35808  -3.75549
   2.39243   3.20865  -3.75549
   1.98419   2.80041  -3.75549
   1.83476   2.24274  -3.75549
  -2.36951  -2.51155   2.82440
  -2.69141  -3.06910   2.82440
  -2.19610  -4.15273   2.33166
  -1.30373  -3.17384   2.33166
  -2.68258  -5.23539   1.42119
  -2.84825  -5.55588   0.85067
  -2.52320  -5.71082   0.23161
  -0.78341  -4.85741   0.23161
  -2.36951  -5.74814  -0.41219
  -2.52320  -5.71082  -1.05599
  -2.84825  -5.55588  -1.67505
  -2.68258  -5.23539  -2.24557
  -2.19610  -4.15273  -3.15604
  -3.64474  -1.41789  -3.46099
  -2.36951  -2.51155  -3.64878
  -3.33521  -1.95400  -3.64878
  -3.65711  -2.51155  -3.64878
  -3.33521  -3.06910  -3.64878
  -2.69141  -3.06910  -3.64878
  -3.01331  -2.51155  -3.71219
  -5.22756  -3.08025   3.31776
  -4.58376  -3.08025   3.25435
  -5.54946  -3.63780   3.25435
  -4.90566  -3.63780   3.25435
  -4.41035  -4.72143   2.76161
  -7.28136  -4.89976   1.85114
  -6.20054  -5.64579   1.85114
  -7.83995  -4.65207   1.28062
  -6.93851  -5.60371   1.28062
  -6.35604  -5.91252   1.28062
  -7.68335  -5.18848   0.66156
  -7.20870  -5.63967   0.66156
  -6.65294  -5.98608   0.66156
  -8.52756  -3.08025   0.01776
  -8.27636  -4.34311   0.01776
  -7.97141  -4.91363   0.01776
  -7.56101  -5.41370   0.01776
  -7.06094  -5.82410   0.01776
  -8.05746  -1.50953  -0.62604
  -8.31572  -2.11133  -0.62604
  -8.31572  -4.04917  -0.62604
  -8.05746  -4.65097  -0.62604
  -7.68335  -5.18848  -0.62604
  -7.20870  -5.63967  -0.62604
  -6.65294  -5.98608  -0.62604
  -6.93851  -5.60371  -1.24510
  -6.35604  -5.91252  -1.24510
  -7.89168  -2.42360  -1.81562
  -7.97141  -3.08025  -1.81562
  -7.89168  -3.73690  -1.81562
  -6.20054  -5.64579  -1.81562
  -4.41035  -4.72143  -2.72609
  -5.54946  -2.52270  -3.21883
  -5.87136  -3.08025  -3.21883
  -5.54946  -3.63780  -3.21883
  -4.90566  -3.63780  -3.21883
  -5.22756  -3.08025  -3.28224
  -0.97817   3.56035   3.43129
  -0.33437   3.56035   3.36788
  -0.65627   4.11790   3.36788
  -1.30007   4.11790   3.36788
  -1.62197   3.56035   3.36788
  -1.30007   3.00280   3.36788
  -0.16096   5.20153   2.87514
  -0.64744   6.28419   1.96467
  -0.81311   6.60468   1.39415
  -1.47141   6.56899   1.39415
  -0.48806   6.75962   0.77509
  -1.14210   6.79279   0.77509
  -0.33437   6.79694   0.13129
  -0.97817   6.86035   0.13129
  -1.62197   6.79694   0.13129
  -0.48806   6.75962  -0.51251
  -1.14210   6.79279  -0.51251
  -0.81311   6.60468  -1.13157
  -1.47141   6.56899  -1.13157
   1.07563   5.37986  -1.70209
  -0.64744   6.28419  -1.70209
  -0.16096   5.20153  -2.61256
  -0.33437   3.56035  -3.10530
  -0.65627   4.11790  -3.10530
  -1.30007   4.11790  -3.10530
  -1.30007   3.00280  -3.10530
  -0.97817   3.56035  -3.16871
   1.36189   3.08563   3.40490
   0.71809   3.08563   3.40490
   2.74957   3.19037   2.91216
   1.85720   4.16926   2.91216
   3.09379   4.34759   2.00169
   0.71809   3.08563  -3.06828
   2.51000  -3.62370  -0.65250
   2.98465  -4.07489  -0.65250
   3.25484  -4.03893  -1.27156
   3.83731  -4.34774  -1.27156
   4.47255  -4.52411  -1.27156
   5.13085  -4.55980  -1.27156
  -0.84043   1.19804   3.34070
  -1.16233   1.75559   3.27729
  -1.48423   1.19804   3.27729
  -1.16233   0.64049   3.27729
  -0.19663   1.19804  -3.19589
  -0.51853   1.75559  -3.19589
  -1.16233   1.75559  -3.19589
  -0.84043   1.19804  -3.25930
   0.05404  -4.61499   0.38911
  -0.27149  -4.87659  -0.22995
   1.46830  -4.02318  -0.22995
   1.98225  -3.51070  -0.87375
   1.46830  -4.02318  -1.51755
   1.89488  -3.52628  -1.51755
   2.21269  -2.95369  -1.51755
   1.66553  -3.52238  -2.13661
   1.98225  -1.67732  -2.70713
   1.90252  -2.33397  -2.70713
  -1.39303  -0.58366  -3.92255
  -0.11780  -1.67732  -4.11034
  -0.43970  -1.11977  -4.11034
  -1.08350  -1.11977  -4.11034
  -1.40540  -1.67732  -4.11034
